ply
format ascii 1.0
comment Created by CloudCompare v2.10.2 (Zephyrus)
comment Created 2019/4/15 4:55
obj_info Generated by CloudCompare!
element vertex 585
property float x
property float y
property float z
property float scalar_intensity
end_header
174.554 27.9773 3.997 144327 
174.699 28.0336 3.9894 131310 
174.897 28.118 3.97883 141456 
175.041 28.181 3.971 152880 
174.538 28.334 3.997 124541 
174.645 28.3803 3.99167 123353 
175.152 28.2288 3.96525 146638 
175.309 28.2944 3.9566 145382 
175.495 28.3702 3.9472 139019 
174.757 28.4287 3.986 122710 
174.903 28.4854 3.9778 124086 
175.102 28.5647 3.96725 127969 
175.598 28.405 3.942 122368 
175.707 28.4534 3.9356 132784 
175.893 28.5335 3.9255 129799 
176.005 28.571 3.92 119423 
175.282 28.642 3.95767 125366 
175.499 28.7325 3.946 125621 
175.644 28.7835 3.938 154221 
176.104 28.6265 3.9145 147327 
176.339 28.7432 3.90133 149915 
176.41 28.7717 3.89767 141599 
175.747 28.833 3.9325 143552 
175.891 28.8975 3.925 126899 
176.13 28.97 3.912 188693 
176.279 28.8796 3.9045 177171 
176.129 29.0035 3.912 127511 
170.75 26.433 4.19433 131171 
170.912 26.5006 4.1858 133669 
171.089 26.5643 4.177 137020 
170.733 26.7867 4.19433 138175 
171.278 26.6387 4.16767 133867 
171.482 26.724 4.15775 135703 
171.641 26.788 4.149 137537 
170.904 26.8545 4.186 135672 
171.116 26.9447 4.17475 120629 
171.231 26.987 4.169 132912 
171.763 26.8383 4.14267 137765 
171.898 26.8925 4.136 139630 
172.09 26.97 4.126 138989 
171.334 27.0343 4.16367 127566 
171.499 27.0958 4.1556 128166 
171.671 27.1653 4.14633 126507 
172.309 27.0624 4.115 142459 
172.524 27.1498 4.1036 141436 
171.769 27.2045 4.1415 125019 
171.904 27.2568 4.1346 130031 
172.093 27.3407 4.125 123032 
172.231 27.385 4.118 146650 
172.711 27.228 4.0936 142415 
172.912 27.3057 4.0835 144585 
173.067 27.3697 4.07533 143828 
172.321 27.4268 4.11325 130869 
172.497 27.4937 4.10383 135763 
172.668 27.565 4.09533 120475 
173.16 27.4075 4.0705 155452 
173.313 27.4632 4.0625 134366 
173.503 27.5458 4.0524 140812 
173.617 27.588 4.047 137076 
172.772 27.611 4.09 116220 
172.898 27.6597 4.0835 128334 
173.098 27.7396 4.0732 127121 
173.203 27.791 4.067 125673 
173.698 27.629 4.04233 138418 
173.885 27.7007 4.03267 132757 
174.069 27.7795 4.02275 146112 
173.311 27.8328 4.062 125306 
173.511 27.9103 4.0515 131277 
173.676 27.9777 4.043 126262 
174.169 27.8235 4.0175 134061 
174.302 27.8758 4.0104 141745 
174.446 27.9343 4.003 142180 
173.766 28.0195 4.038 117668 
173.904 28.0757 4.03083 125178 
174.112 28.1564 4.02 125795 
174.21 28.194 4.015 130197 
174.301 28.234 4.01 130542 
174.442 28.2897 4.00267 132445 
166.704 24.8436 4.3938 127296 
166.903 24.9247 4.38417 137029 
167.053 24.976 4.377 124145 
166.586 25.155 4.398 137358 
166.64 25.1755 4.3965 134907 
167.163 25.02 4.3715 122765 
167.31 25.0782 4.3648 133133 
167.512 25.152 4.3548 128022 
167.613 25.189 4.35 121892 
166.737 25.2137 4.39133 134434 
166.902 25.2755 4.3835 133082 
167.099 25.3582 4.3742 135007 
167.224 25.399 4.368 149827 
167.702 25.2292 4.3455 129009 
167.89 25.3047 4.33617 136192 
168.065 25.3758 4.32775 144681 
167.317 25.4396 4.3636 139287 
167.504 25.5124 4.3544 132515 
167.661 25.575 4.3465 134110 
168.163 25.414 4.323 147606 
168.306 25.4664 4.316 124154 
168.466 25.5305 4.308 134927 
168.622 25.5885 4.3005 127788 
167.75 25.6127 4.34267 131554 
167.903 25.6692 4.3352 133814 
168.098 25.7457 4.32517 132253 
168.725 25.6312 4.29525 131661 
168.908 25.7045 4.28633 136005 
169.071 25.7643 4.278 135766 
168.308 25.8272 4.3154 133483 
168.478 25.8964 4.3068 130886 
168.673 25.9738 4.297 131872 
169.174 25.811 4.273 140608 
169.285 25.8507 4.26825 145933 
169.459 25.916 4.259 130090 
169.62 25.979 4.2505 143414 
168.763 26.004 4.292 140262 
168.886 26.053 4.2866 136881 
169.107 26.1422 4.2756 134325 
169.26 26.199 4.268 137999 
169.73 26.027 4.2455 141443 
169.905 26.0952 4.23683 145416 
170.085 26.1653 4.22775 129917 
169.324 26.2313 4.26467 124700 
169.52 26.3038 4.2556 126752 
169.675 26.3628 4.24725 132502 
170.191 26.2075 4.222 129529 
170.283 26.244 4.21767 129264 
170.483 26.3223 4.20767 133300 
170.62 26.386 4.2005 135135 
169.738 26.4 4.244 117320 
169.885 26.4513 4.23667 125796 
170.089 26.5283 4.22675 128995 
170.314 26.621 4.21533 126458 
170.472 26.682 4.2075 124062 
170.613 26.74 4.2 144062 
162.296 23.182 4.599 128373 
162.37 23.2195 4.596 138259 
162.516 23.2603 4.589 125592 
162.714 23.335 4.58033 126755 
162.841 23.3815 4.5745 118130 
162.324 23.5525 4.59725 141195 
162.442 23.596 4.592 132632 
162.952 23.427 4.569 127886 
163.103 23.4838 4.5628 126913 
163.318 23.5577 4.55233 127715 
163.402 23.588 4.549 133780 
162.511 23.624 4.58867 129600 
162.708 23.6887 4.57967 137198 
162.879 23.762 4.572 121353 
163.512 23.6275 4.5435 129985 
163.708 23.7055 4.53475 135638 
163.878 23.7725 4.5265 140389 
163.097 23.8375 4.562 132782 
163.313 23.9243 4.552 125096 
163.465 23.9705 4.5445 134874 
163.984 23.805 4.522 123761 
164.107 23.8527 4.516 129765 
164.294 23.9223 4.5075 139417 
164.415 23.977 4.502 139123 
163.544 24.004 4.5415 140278 
163.68 24.0563 4.535 127254 
163.907 24.139 4.52483 131637 
164.042 24.19 4.518 140383 
164.52 24.0153 4.49733 142805 
164.703 24.0738 4.4884 125134 
164.888 24.1507 4.48 133088 
165.014 24.195 4.474 133549 
164.119 24.2192 4.515 133524 
164.289 24.2882 4.5072 130805 
164.487 24.3562 4.498 133312 
165.083 24.222 4.47075 134467 
165.3 24.3065 4.46033 127052 
165.477 24.374 4.452 123966 
164.712 24.4433 4.48733 133013 
164.91 24.52 4.478 127068 
165.054 24.581 4.47133 124792 
165.575 24.404 4.447 118958 
165.687 24.452 4.44225 127895 
165.88 24.5288 4.43317 134400 
166.034 24.584 4.4255 126494 
165.142 24.614 4.467 129610 
165.295 24.6653 4.46 133461 
165.509 24.7457 4.44967 130085 
165.635 24.795 4.444 136295 
166.148 24.626 4.4205 125579 
166.321 24.694 4.412 128675 
166.492 24.7607 4.404 125858 
165.735 24.83 4.4395 139553 
165.89 24.8946 4.4316 129929 
166.082 24.963 4.4228 133629 
166.19 25.005 4.417 122779 
166.293 25.046 4.4126 129351 
166.486 25.1176 4.4034 131739 
157.728 21.532 4.799 123265 
157.853 21.5687 4.79367 121696 
157.964 21.607 4.789 115655 
158.101 21.6554 4.7836 124782 
158.284 21.727 4.77575 127247 
158.442 21.7833 4.769 125237 
157.754 21.8987 4.797 127831 
157.895 21.9486 4.7914 122281 
158.035 21.9895 4.786 138342 
158.556 21.8237 4.76367 122314 
158.704 21.88 4.7574 129725 
158.929 21.9545 4.748 119854 
159.051 21.999 4.742 122357 
158.139 22.0332 4.78125 127103 
158.306 22.0942 4.774 136168 
158.506 22.162 4.766 133918 
159.132 22.0298 4.7395 128209 
159.292 22.0834 4.7322 124362 
159.514 22.1672 4.7224 127579 
158.709 22.2368 4.757 134314 
158.909 22.3057 4.74817 133072 
159.097 22.3792 4.74025 132603 
159.7 22.2352 4.7148 127652 
159.911 22.308 4.705 129531 
160.068 22.3613 4.69867 131146 
159.192 22.407 4.736 137119 
159.298 22.4408 4.7312 140151 
159.485 22.5098 4.7234 132788 
159.646 22.575 4.716 135460 
160.179 22.4155 4.6935 134051 
160.31 22.4542 4.6878 128701 
160.476 22.5122 4.68075 132736 
160.659 22.577 4.6725 123782 
159.751 22.6105 4.7115 129325 
159.906 22.6677 4.705 136668 
160.108 22.7338 4.6962 146901 
160.257 22.7955 4.689 152797 
160.765 22.61 4.667 116184 
160.903 22.673 4.6615 131945 
161.106 22.7416 4.6526 124149 
161.203 22.78 4.648 134576 
160.357 22.8335 4.6855 135001 
160.469 22.869 4.68 137290 
160.679 22.948 4.67067 131555 
161.31 22.8205 4.64325 128433 
161.475 22.8758 4.636 129502 
161.714 22.9662 4.62567 128712 
160.896 23.0325 4.661 134033 
161.116 23.1117 4.6515 128880 
161.305 23.1722 4.643 137829 
161.908 23.038 4.617 134373 
162.094 23.109 4.6082 123678 
162.219 23.155 4.6025 126954 
161.483 23.2392 4.635 145889 
161.701 23.3273 4.625 123471 
161.845 23.377 4.619 132467 
161.941 23.4127 4.61467 133497 
162.09 23.4685 4.60775 129754 
162.214 23.514 4.602 139767 
155.295 20.6794 4.9008 128573 
155.514 20.7557 4.892 128920 
155.693 20.8117 4.885 133591 
155.883 20.8832 4.8765 127219 
156.091 20.9508 4.86775 121800 
155.713 21.1807 4.883 134418 
156.286 21.027 4.86025 127326 
156.481 21.0913 4.852 136265 
156.716 21.1675 4.842 121991 
155.911 21.249 4.8745 133697 
156.113 21.3193 4.8665 137212 
156.264 21.375 4.86 130780 
156.935 21.2466 4.8332 131169 
157.111 21.3153 4.82533 132019 
157.272 21.3694 4.819 126634 
156.329 21.405 4.857 116005 
156.48 21.4498 4.85125 127437 
156.704 21.5297 4.842 125989 
156.872 21.583 4.835 142455 
157.359 21.402 4.815 139655 
157.507 21.451 4.80883 124287 
157.656 21.506 4.803 124512 
156.962 21.616 4.831 140907 
157.089 21.6645 4.82575 133103 
157.293 21.7352 4.81717 124501 
157.436 21.7865 4.8115 131054 
157.544 21.8275 4.8065 129119 
157.665 21.8625 4.8015 148406 
147.588 18.122 5.198 130657 
147.702 18.1556 5.1946 124811 
147.801 18.185 5.191 124033 
147.912 18.2183 5.18725 123597 
148.091 18.2782 5.1805 127626 
148.333 18.36 5.1716 129543 
148.469 18.399 5.166 130260 
147.587 18.4655 5.1985 146356 
147.697 18.512 5.19425 125182 
147.866 18.5626 5.1882 135904 
148.509 18.4147 5.16533 129757 
148.705 18.475 5.158 122481 
148.909 18.5408 5.15033 130831 
149.063 18.59 5.145 114972 
148.121 18.643 5.1786 130393 
148.304 18.7 5.172 127377 
148.463 18.7568 5.1662 138869 
149.134 18.6205 5.142 121509 
149.28 18.6624 5.1364 127995 
149.508 18.7358 5.128 129701 
149.658 18.774 5.122 129909 
148.706 18.8213 5.15725 137556 
148.922 18.9007 5.149 130748 
149.096 18.961 5.14267 134136 
149.732 18.8065 5.1195 141539 
149.294 19.0212 5.13517 135697 
149.519 19.0956 5.127 137032 
149.69 19.1543 5.12033 125198 
149.83 19.196 5.115 131316 
149.934 19.2345 5.1115 133697 
150.104 19.2893 5.10433 132915 
150.301 19.352 5.09717 131236 
150.416 19.393 5.093 137199 
141.891 16.3527 5.39667 134417 
142.042 16.392 5.392 114771 
142.145 16.4323 5.388 126777 
142.302 16.4673 5.38325 120055 
142.487 16.5282 5.377 125916 
142.634 16.579 5.372 138093 
141.907 16.7062 5.39583 137964 
142.096 16.765 5.3895 130890 
142.764 16.613 5.36767 124180 
142.893 16.655 5.363 131118 
143.081 16.712 5.357 131726 
143.272 16.7688 5.3504 127649 
142.297 16.8256 5.3824 128928 
142.512 16.8905 5.37533 126078 
142.707 16.948 5.369 129697 
142.815 16.988 5.366 119751 
143.396 16.806 5.346 135162 
143.499 16.839 5.3426 129108 
143.7 16.8963 5.336 124857 
143.902 16.9582 5.3292 130967 
144.014 16.988 5.325 115419 
142.925 17.019 5.362 126690 
143.109 17.0718 5.3555 127178 
143.291 17.1268 5.3494 142770 
143.448 17.1755 5.344 137699 
144.122 17.0282 5.3214 125997 
144.31 17.0898 5.315 128129 
144.493 17.1436 5.3086 124794 
144.649 17.1873 5.30333 118698 
143.561 17.204 5.34 144180 
143.704 17.2547 5.33533 136961 
143.917 17.3128 5.328 138355 
144.078 17.3655 5.32275 133515 
144.754 17.2223 5.299 131932 
144.91 17.2696 5.2942 136235 
145.089 17.3346 5.288 139037 
145.242 17.3767 5.28267 120623 
144.167 17.4 5.32 132208 
144.303 17.4367 5.31467 134361 
144.506 17.4998 5.3078 136286 
144.695 17.558 5.3014 130735 
144.808 17.595 5.297 132836 
145.337 17.413 5.2795 139311 
145.501 17.4546 5.2736 118726 
145.692 17.515 5.2666 126495 
145.854 17.568 5.261 125670 
144.915 17.632 5.2936 131854 
145.107 17.6886 5.2868 135696 
145.306 17.7533 5.27975 126473 
145.422 17.789 5.2755 133677 
145.973 17.607 5.257 127690 
146.1 17.6454 5.2522 125460 
146.286 17.706 5.2454 128668 
146.513 17.7768 5.2374 127631 
145.535 17.8203 5.27175 131810 
145.7 17.868 5.26575 142165 
145.888 17.9276 5.259 138335 
146.054 17.981 5.25325 140015 
146.695 17.829 5.2312 126825 
146.902 17.9028 5.22333 128495 
147.103 17.9608 5.2165 133071 
147.215 17.992 5.212 122090 
146.172 18.021 5.2495 136256 
146.316 18.0652 5.244 131357 
146.519 18.128 5.237 135198 
146.653 18.174 5.232 124903 
147.314 18.0238 5.20875 123936 
147.477 18.0788 5.203 126863 
146.763 18.2065 5.228 141898 
146.916 18.2585 5.22267 136804 
147.098 18.312 5.21625 143075 
147.262 18.3697 5.21 130279 
147.352 18.403 5.207 115648 
147.469 18.4335 5.2025 133969 
135.509 14.4925 5.59625 132183 
135.696 14.5472 5.5906 127021 
135.836 14.59 5.586 139568 
135.923 14.614 5.58375 139990 
136.077 14.6567 5.5795 134321 
136.301 14.7185 5.5725 127826 
136.505 14.7752 5.5666 127932 
135.505 14.8448 5.5956 132552 
135.716 14.9042 5.5895 127024 
135.923 14.9618 5.5836 131060 
136.037 14.995 5.58 131885 
136.695 14.8272 5.5608 125169 
136.902 14.8868 5.5545 124016 
137.111 14.9446 5.5482 123121 
137.253 14.9907 5.54433 132631 
136.133 15.0175 5.5775 137984 
136.299 15.068 5.5724 137852 
136.49 15.1222 5.5668 137344 
136.675 15.1766 5.561 123827 
137.357 15.0165 5.541 123602 
137.502 15.0617 5.53617 129640 
137.707 15.121 5.53 126958 
137.899 15.1768 5.5242 127620 
136.793 15.208 5.558 132400 
136.903 15.2366 5.554 133999 
137.087 15.2895 5.54875 134602 
137.298 15.3547 5.542 126105 
137.423 15.388 5.539 130385 
138.082 15.2268 5.5184 121295 
138.292 15.288 5.51167 123743 
138.499 15.3428 5.5056 125813 
138.633 15.385 5.5015 125921 
137.525 15.416 5.535 131207 
137.709 15.4712 5.5295 128384 
137.911 15.5293 5.52333 126753 
138.102 15.5804 5.5174 137543 
138.74 15.4187 5.49825 126381 
138.91 15.4656 5.493 123335 
139.098 15.5218 5.4868 123766 
139.266 15.5725 5.4815 123109 
138.295 15.6392 5.5116 131158 
138.478 15.692 5.506 129864 
138.689 15.7533 5.49933 139557 
138.833 15.793 5.4945 133087 
139.363 15.607 5.479 133670 
139.488 15.6343 5.4745 132010 
139.7 15.7022 5.468 135832 
139.881 15.7538 5.4618 129671 
140.017 15.784 5.458 120720 
138.935 15.8227 5.49133 135801 
139.101 15.875 5.48625 140030 
139.268 15.921 5.4812 141116 
139.479 15.9835 5.474 139321 
140.13 15.827 5.45425 137957 
140.299 15.8726 5.4488 123127 
140.491 15.9377 5.44267 137002 
140.65 15.9805 5.4375 130163 
139.585 16.0155 5.471 133351 
139.684 16.0407 5.46767 139081 
139.871 16.1056 5.4618 122295 
140.111 16.1724 5.4542 134674 
140.761 16.017 5.434 135619 
140.901 16.0532 5.429 128131 
141.108 16.1065 5.422 121774 
141.292 16.1672 5.4165 126731 
140.287 16.224 5.44867 133537 
140.488 16.2817 5.44217 133390 
140.711 16.3468 5.43467 140213 
140.864 16.395 5.43 133415 
141.515 16.2397 5.409 126152 
141.702 16.2945 5.40325 131096 
141.806 16.324 5.4 123694 
140.941 16.4215 5.427 135829 
141.067 16.4587 5.42325 135162 
141.314 16.532 5.41533 124980 
141.46 16.574 5.411 131002 
141.526 16.601 5.408 117261 
141.669 16.635 5.40325 137038 
128.139 12.5255 5.798 142506 
128.305 12.5624 5.7938 135651 
128.477 12.612 5.7895 138967 
128.685 12.6578 5.7842 130729 
128.898 12.7138 5.7785 139150 
129.084 12.7652 5.7735 138990 
128.131 12.8645 5.79775 125302 
128.299 12.906 5.7936 123555 
128.493 12.958 5.7884 124259 
128.625 12.991 5.7855 130547 
129.195 12.802 5.771 154022 
129.287 12.8216 5.768 148901 
129.502 12.8738 5.76267 136565 
129.707 12.9324 5.7576 142948 
129.881 12.9718 5.7535 134490 
128.735 13.022 5.78225 122653 
128.907 13.0648 5.778 125778 
129.096 13.1114 5.773 125443 
129.286 13.1637 5.768 119337 
129.418 13.1925 5.7645 129758 
129.968 13 5.751 136495 
130.085 13.0278 5.7478 142449 
130.298 13.0832 5.74183 141203 
130.502 13.139 5.7366 134179 
130.677 13.1817 5.732 136585 
129.528 13.228 5.76225 117593 
129.703 13.2718 5.7572 134071 
129.888 13.3248 5.7524 117616 
130.082 13.3736 5.747 123194 
130.771 13.209 5.729 151110 
130.898 13.2358 5.72617 127633 
131.11 13.2992 5.7202 134820 
131.295 13.3468 5.7152 142866 
131.455 13.3867 5.711 135608 
130.19 13.403 5.745 117135 
130.306 13.4342 5.7414 118403 
130.494 13.4812 5.7362 129338 
130.704 13.5332 5.73067 125914 
130.876 13.5823 5.726 134575 
131.562 13.421 5.708 135370 
131.712 13.4592 5.704 138576 
131.901 13.506 5.6986 127797 
132.088 13.562 5.6938 145599 
132.251 13.598 5.689 136602 
130.965 13.607 5.7235 126681 
131.101 13.6436 5.7206 122624 
131.306 13.6955 5.7145 129481 
131.532 13.7622 5.70825 123626 
131.649 13.7885 5.7055 128249 
132.332 13.6252 5.68675 132196 
132.487 13.6637 5.68267 131835 
132.707 13.7228 5.6764 125090 
132.903 13.7778 5.67075 136993 
131.738 13.811 5.70267 125499 
131.931 13.864 5.6974 129502 
132.097 13.9142 5.69325 128422 
132.308 13.9672 5.687 122349 
132.44 13.992 5.683 146507 
133.086 13.8295 5.666 136739 
133.313 13.8925 5.65925 135153 
133.479 13.9388 5.6546 138683 
133.65 13.9855 5.6505 150734 
132.514 14.0237 5.68125 127130 
132.693 14.073 5.67667 127096 
132.873 14.123 5.671 130629 
133.083 14.181 5.6655 126907 
133.754 14.012 5.647 133936 
133.901 14.0527 5.64267 145112 
134.112 14.106 5.6366 129459 
134.277 14.157 5.63225 137483 
134.419 14.192 5.628 136020 
133.189 14.2145 5.662 125103 
133.289 14.238 5.65967 123588 
133.495 14.292 5.654 126194 
133.68 14.341 5.64825 130062 
133.855 14.383 5.644 137296 
134.543 14.2283 5.62467 128847 
134.716 14.2793 5.6195 131385 
134.875 14.317 5.61433 133339 
135.07 14.3723 5.60933 131438 
133.965 14.416 5.64 131938 
134.083 14.4508 5.6374 129547 
134.268 14.4973 5.63175 134061 
134.498 14.5656 5.6252 130912 
135.171 14.401 5.606 130952 
135.319 14.4455 5.60183 136795 
134.73 14.6297 5.61825 131677 
134.91 14.6738 5.6132 132971 
135.096 14.7256 5.6078 130461 
135.289 14.7742 5.6022 143767 
125.924 11.9758 5.8524 160848 
126.017 11.984 5.851 139373 
125.908 12.1297 5.853 167895 
126.132 12.01 5.8485 127703 
126.302 12.0575 5.8435 141855 
126.475 12.0948 5.83925 136053 
126.721 12.163 5.83375 141456 
126.85 12.193 5.83 137161 
125.923 12.3107 5.85233 136363 
126.12 12.3523 5.8475 125965 
126.258 12.385 5.844 134988 
126.928 12.2165 5.8285 142865 
127.078 12.2498 5.82467 132111 
127.306 12.3052 5.819 139582 
127.507 12.36 5.814 131232 
127.619 12.386 5.811 132772 
126.349 12.419 5.841 117827 
126.517 12.4552 5.838 128392 
126.728 12.5103 5.83267 126930 
126.895 12.5508 5.8286 124903 
127.031 12.591 5.825 134483 
127.724 12.4155 5.80825 147757 
127.911 12.4618 5.804 142212 
128.046 12.4963 5.80033 134775 
127.155 12.6223 5.82233 126000 
127.299 12.653 5.81875 123308 
127.488 12.6992 5.81383 132413 
127.697 12.7572 5.8088 120806 
127.843 12.7897 5.805 121067 
127.96 12.817 5.802 127577 
128.036 12.839 5.8 126921 
